-9.47836 -0.102933 17.552 
-9.35627 -0.151766 17.552 
-9.2586 0.01915 17.552 
-8.91678 0.0435666 17.552 
-14.5569 -0.0991831 32.1787 
-13.5133 -0.0466451 27.5818 
-9.16233 0.0456412 18.3878 
-14.5121 -0.0991832 32.1788 
-14.4153 -0.743035 35.1042 
-13.5273 0.0798722 32.1788 
-14.3664 0.0382999 35.104 
-14.4153 -0.498867 35.1042 
-14.5129 -0.450033 35.1041 
-13.3035 -0.0991834 32.1788 
-13.3482 -0.278238 32.1787 
-14.0644 -0.099183 32.1787 
-13.3483 -0.681113 32.1788 
-13.2921 -0.0593666 35.1041 
-13.8292 0.380133 35.1041 
-13.1456 -0.1082 35.1041 
-13.9269 -0.0105338 35.1041 
-13.8781 0.0871332 35.1041 
-13.5851 0.282467 35.1041 
-14.1222 0.0871332 35.1041 
-14.1711 -0.205866 35.1041 
-13.2587 -0.099183 32.1787 
-14.4064 0.04213 38.6145 
-14.2762 -0.609725 42.905 
-13.3858 0.149563 38.6145 
-17.0008 -0.820233 48.2682 
-12.4619 -0.2547 35.1041 
-13.9229 -0.11902 38.6144 
-13.6544 0.256996 38.6145 
-14.2452 0.310713 38.6145 
-13.6006 0.0958465 38.6144 
-14.1916 -0.763621 38.6146 
-13.8692 -0.495036 38.6145 
-14.0464 -0.350211 48.268 
-14.0464 -0.954522 48.268 
-7.49142 0.278764 25.743 
-7.91142 0.183569 27.5818 
-14.2479 -0.820233 48.2682 
-14.2478 -0.215921 48.2681 
-7.56303 0.242953 25.743 
-14.315 0.0526624 48.268 
-12.7035 0.119808 48.2681 
-8.31337 0.0737281 29.7034 
-10.2773 0.106496 42.905 
-7.81753 0.19769 29.7035 
-8.27205 0.197689 29.7034 
-10.6951 -0.132244 42.9049 
-12.5692 -0.0144836 48.2681 
-8.1481 0.321651 29.7034 
-9.24959 0.0958464 38.6144 
-1.92013 0.261341 24.1341 
-2.12156 -0.10796 24.134 
-2.323 0.261341 24.134 
0.167547 -0.311299 42.905 
-0.071193 0.225875 42.905 
-0.0711931 -0.0128744 42.905 
0.0481772 0.404922 42.905 
1.42093 -0.90815 42.905 
0.943453 0.285551 42.905 
1.12251 -0.0128744 42.905 
0.824083 -0.370985 42.905 
1.30156 -0.370985 42.905 
4.08294 -0.954523 48.2681 
3.61292 -0.887378 48.2681 
4.21723 -0.753086 48.2681 
3.74865 0.0468129 42.905 
4.33674 0.1848 35.1041 
5.06924 -0.743032 35.1041 
2.78008 -0.477262 24.1341 
2.71293 -0.34297 24.1341 
2.71293 -0.175106 24.1341 
2.61221 0.0599041 24.134 
2.78007 0.0263346 24.1341 
2.67936 0.0263345 24.134 
2.57864 -0.0743873 24.1341 
4.72741 -0.743033 35.1041 
4.64681 -0.681113 32.1787 
2.89655 -0.219501 15.4458 
2.91804 -0.0905812 15.4458 
2.89655 0.0813119 15.4458 
2.91804 0.145772 15.4458 
2.83209 0.167258 15.4458 
2.89655 0.0813119 15.4458 
2.9825 -0.305447 15.4458 
3.15439 -0.155041 15.4458 
3.21885 -0.176528 15.4458 
3.28331 -0.326934 15.4458 
2.91804 0.145772 15.4458 
3.04696 -0.176528 15.4458 
2.96101 -0.219501 15.4458 
3.11142 0.145772 15.4458 
3.08993 0.102798 15.4458 
4.22225 -0.111295 12.8715 
4.20435 -0.0396732 12.8715 
4.22225 0.103571 12.8715 
4.32969 0.103571 12.8715 
4.16854 0.121477 12.8715 
3.11126 0.0195605 7.88051 
3.10029 0.0634108 7.88051 
3.13131 0.0871138 8.04469 
3.10029 0.085336 7.88051 
3.12222 0.0853359 7.88051 
9.75768 -0.101609 22.7144 
3.35794 0.0775382 8.21585 
10.8636 -0.0700115 22.7144 
11.0848 -0.0700116 22.7144 
10.4212 -0.0068164 22.7144 
10.6424 0.119576 22.7144 
10.2948 0.151174 22.7144 
10.9584 0.182773 22.7144 
10.2317 0.21437 22.7144 
8.63877 -0.12735 17.552 
11.0848 -0.0700116 22.7144 
8.6575 -0.206265 16.0894 
8.81795 -0.31436 14.8518 
8.87872 -0.195983 13.7909 
3.50762 0.0444837 4.10793 
-15.4164 -0.0408145 24.1341 
-15.2821 -0.0408145 24.1341 
-14.0735 0.0263312 24.134 
-14.1742 0.127049 24.134 
-14.2414 -0.0408145 24.1341 
-14.1407 -0.10796 24.1341 
-14.3085 0.36206 24.134 
-14.8793 0.529926 24.1341 
-14.275 0.0934771 24.1341 
-14.0064 0.496352 24.1341 
-14.4092 0.0263313 24.1341 
-14.6443 -0.10796 24.1341 
-13.7378 0.462778 24.134 
-13.5364 0.563499 24.1341 
-13.805 0.496353 24.1341 
-9.95529 -0.00551828 18.3879 
-13.5364 0.294914 24.1341 
-13.5699 -0.0408144 24.134 
-13.3685 0.597071 24.1341 
-13.5363 0.0599041 24.1341 
-13.6371 0.496353 24.1341 
-8.77026 0.0679831 17.552 
-8.8191 0.01915 17.552 
-9.92971 -0.00551833 18.3878 
-8.8191 -0.0540998 17.552 
-9.47835 -0.0785165 17.552 
-9.2586 0.0435666 17.552 
-8.91677 0.0679833 17.552 
-9.21351 0.429332 18.3879 
-9.28303 0.2389 17.5521 
-9.13653 0.01915 17.552 
-14.5569 -0.0544193 32.1787 
-13.5133 -0.00827676 27.5818 
-9.16233 0.0712205 18.3878 
-13.5273 0.124636 32.1788 
-14.3664 0.624299 35.104 
-14.0644 -0.0544192 32.1787 
-13.3035 -0.0544194 32.1788 
-13.4378 0.52751 32.1787 
-14.5121 -0.0544193 32.1788 
-14.3664 0.0871331 35.104 
-13.2587 0.885622 32.1788 
-13.1692 0.751329 32.1787 
-14.5129 0.1848 35.1041 
-14.1711 -0.157033 35.1041 
-13.8781 0.721966 35.1041 
-13.2587 -0.0544192 32.1787 
-14.3176 0.6243 35.1042 
-13.5851 0.3313 35.1041 
-14.1222 0.135966 35.1041 
-13.1456 -0.0593666 35.1041 
-14.4064 0.0958465 38.6145 
-13.9269 0.0383 35.1041 
-13.8292 0.428966 35.1041 
-9.24617 0.708498 25.743 
-13.9229 -0.0653031 38.6144 
-8.26541 0.630643 24.1341 
-8.31508 0.636875 25.743 
-8.06396 0.462778 24.134 
-13.6544 0.310713 38.6145 
-13.3858 0.20328 38.6145 
-13.7081 -0.172736 38.6145 
-13.6006 0.149563 38.6144 
-7.91142 0.221938 27.5818 
-8.31337 0.115048 29.7034 
-7.49142 0.314575 25.743 
-7.45965 0.563497 24.1341 
-8.27927 0.636876 25.743 
-7.20494 0.565253 25.743 
-7.56303 0.278764 25.743 
-14.2478 -0.148775 48.2681 
-14.315 0.119808 48.268 
-8.27206 0.23901 29.7034 
-7.41262 0.682367 27.5818 
-7.37425 0.605628 27.5818 
-7.75794 0.605628 27.5818 
-7.9415 0.528254 29.7035 
-7.81753 0.23901 29.7035 
-10.6951 -0.072559 42.9049 
-10.2773 0.166181 42.905 
-12.7035 0.186954 48.2681 
-8.31337 0.115048 29.7034 
-6.7432 0.817496 29.7035 
-6.94981 0.776176 29.7035 
-6.78451 0.652214 29.7034 
-7.17084 0.572274 32.1787 
-7.74555 1.06275 38.6145 
-9.24959 0.149563 38.6144 
-7.96042 0.955312 38.6145 
-7.6512 0.583977 42.905 
-7.36953 0.52558 38.6145 
-1.92013 0.328487 24.134 
-2.323 0.395633 24.134 
-2.05442 0.630643 24.1341 
-2.323 0.294914 24.134 
-2.12156 -0.0743873 24.134 
-2.15514 0.328487 24.134 
-2.49087 0.597071 24.1341 
-1.76165 0.422008 25.743 
-1.79746 0.278764 25.743 
-1.72583 0.672686 25.743 
-0.0711932 0.285552 42.905 
-0.0711931 0.046813 42.905 
0.0481772 0.464607 42.905 
0.227232 0.166188 42.905 
0.107862 -0.191937 42.905 
0.286918 0.345237 42.905 
1.12251 0.046813 42.905 
0.943453 0.345237 42.905 
1.24188 0.345237 42.905 
3.74865 0.1065 42.905 
2.61221 0.0934769 24.134 
2.57864 -0.0408195 24.1341 
2.67936 0.0599041 24.134 
2.78007 0.0599041 24.1341 
2.91436 0.395633 24.134 
2.84722 0.194196 24.1341 
4.33674 0.233633 35.1041 
2.71293 0.630643 24.1341 
2.7465 0.328487 24.134 
2.91804 -0.0690945 15.4458 
2.89655 0.102798 15.4458 
2.91804 0.167258 15.4458 
2.83209 0.210232 15.4458 
2.89655 0.253205 15.4458 
2.93953 0.339152 15.4458 
2.91804 0.382125 15.4458 
2.96101 0.253205 15.4458 
3.3048 0.403612 15.4458 
2.89655 0.102798 15.4458 
3.08993 0.231718 15.4458 
2.89655 0.253205 15.4458 
3.19737 0.382125 15.4458 
2.93953 0.339152 15.4458 
2.91804 0.167258 15.4458 
3.08993 0.124285 15.4458 
2.47106 0.24715 8.98013 
2.63345 0.147212 8.98012 
2.61023 0.143866 8.77602 
2.63464 0.143867 8.77602 
2.70789 0.143867 8.77602 
2.60847 0.159705 8.98012 
2.7074 0.176481 8.58101 
2.4149 0.241533 8.77603 
4.22225 -0.0575788 12.8715 
4.20435 -0.0217677 12.8715 
4.06873 0.221526 12.4563 
4.17269 0.169542 12.4563 
4.16854 0.175193 12.8715 
4.16854 0.139382 12.8715 
4.32969 0.121477 12.8715 
4.02551 0.214603 12.067 
4.22225 0.121477 12.8715 
4.59013 0.236803 13.3154 
3.12012 0.109496 8.04469 
3.09774 0.165451 8.04469 
3.16489 0.143069 8.04469 
3.1425 0.131878 8.04469 
3.12222 0.0962985 7.88051 
3.20965 0.165451 8.0447 
3.11125 0.0305231 7.88051 
3.10029 0.0743734 7.88051 
3.10029 0.0962986 7.88051 
9.75768 -0.0700115 22.7144 
3.35794 0.0889673 8.21585 
3.56367 0.157542 8.21586 
3.60939 0.157542 8.21587 
3.40366 0.1804 8.21586 
3.65509 0.191829 8.21585 
3.63491 0.176642 8.0447 
10.8636 0.21437 22.7144 
10.8636 -0.0384136 22.7144 
3.69227 0.216887 7.88051 
10.4212 0.0247823 22.7144 
10.6424 0.151174 22.7144 
3.67967 0.187832 8.04468 
3.66652 0.191829 8.21585 
11.0848 -0.0384136 22.7144 
11.0848 -0.0384136 22.7144 
3.47905 -0.0183762 4.10792 
3.50762 0.0559128 4.10793 
-13.405 0.709783 21.4525 
-14.1071 0.731361 24.1341 
-13.2772 0.877927 22.7144 
-14.3085 0.36206 24.134 
-14.0064 0.496352 24.1341 
-14.8793 0.529926 24.1341 
-13.53 0.877928 22.7144 
-14.0063 0.697788 24.134 
-14.0063 0.764934 24.134 
-14.3085 0.764933 24.134 
-14.2078 0.294915 24.1341 
-13.6371 0.496353 24.1341 
-13.5364 0.294914 24.1341 
-13.5028 0.664215 24.134 
-13.3685 0.597071 24.1341 
-13.5364 0.563499 24.1341 
-13.7042 0.563499 24.1341 
-13.805 0.496353 24.1341 
-13.7378 0.462778 24.134 
-13.3685 0.429207 24.1341 
-13.5028 0.429206 24.1341 
-9.87855 0.582807 18.3878 
-9.28303 0.2389 17.5521 
-9.01445 0.434233 17.552 
-12.7914 1.13823 25.743 
-9.23908 0.736284 18.3879 
-11.9248 0.932797 24.134 
-9.20978 0.31215 17.5521 
-9.21351 0.429332 18.3879 
-9.64731 0.611948 19.3072 
-9.20979 0.360983 17.5521 
-11.3182 0.84633 22.7144 
-12.7198 0.959173 25.743 
-13.5133 1.06606 27.5818 
-12.8273 1.13823 25.743 
-13.6668 1.21953 27.5818 
-13.214 1.10944 32.1788 
-13.4378 0.52751 32.1787 
-14.3664 0.624299 35.104 
-13.1692 0.751329 32.1787 
-13.393 0.796094 32.1788 
-13.2587 0.885622 32.1788 
-13.3482 1.10944 32.1787 
-13.1066 1.31334 29.7035 
-11.0725 1.10242 25.7429 
-13.1066 1.18938 29.7035 
-14.2199 0.4778 35.1041 
-13.0349 0.930386 32.1788 
-13.8781 0.721966 35.1041 
-13.8292 0.428966 35.1041 
-13.5851 0.575467 35.1041 
-14.3176 0.6243 35.1042 
-14.2989 0.633011 38.6144 
-13.5851 0.428966 35.1041 
-9.27262 0.664218 24.1341 
-9.2726 1.06709 24.1341 
-8.26541 0.630643 24.1341 
-7.86253 0.999945 24.1341 
-7.9968 0.999943 24.134 
-8.29899 0.69779 24.1341 
-8.06396 0.462778 24.134 
-9.24617 0.708498 25.743 
-8.31508 0.636875 25.743 
-14.2452 0.525579 38.6145 
-8.90329 0.429206 24.1341 
-8.27927 0.636876 25.743 
-7.86253 0.999945 24.1341 
-6.95604 0.96637 24.134 
-6.9225 0.764936 24.1341 
-7.45965 0.563497 24.1341 
-7.20494 0.565253 25.743 
-7.49142 0.314575 25.743 
-7.32536 0.563497 24.1341 
-7.27655 0.45782 25.743 
-7.12392 0.966372 24.1341 
-7.77623 0.98278 29.7035 
-7.9415 0.528254 29.7035 
-7.32168 1.31334 29.7034 
-7.75794 0.605628 27.5818 
-7.90019 1.06542 29.7035 
-7.6936 1.10674 29.7035 
-7.09751 0.959176 25.7431 
-7.41262 0.682367 27.5818 
-7.61092 1.31334 29.7034 
-7.37425 0.605628 27.5818 
-6.94981 0.776176 29.7035 
-8.12157 1.33133 38.6145 
-6.78451 0.652214 29.7034 
-7.74555 1.11646 38.6145 
-6.7432 0.817496 29.7035 
-7.17084 0.572274 32.1787 
-8.12157 1.11646 38.6145 
-7.79928 1.33133 38.6146 
-7.03656 0.97515 32.1788 
-7.96042 0.955312 38.6145 
-7.77058 0.524293 42.905 
-7.36953 0.52558 38.6145 
-7.63812 1.5462 38.6145 
-7.6512 0.583977 42.905 
-8.12868 1.47925 42.905 
-7.31582 1.43876 38.6145 
-6.3651 1.42279 32.1788 
-5.62191 1.41957 42.905 
-2.323 0.395633 24.134 
-2.02084 1.06709 24.1341 
-2.323 0.294914 24.134 
-2.05442 0.630643 24.1341 
-1.92013 0.328487 24.134 
-2.22228 0.932799 24.1341 
-1.78584 1.06709 24.1341 
-2.15514 0.328487 24.134 
-2.49087 0.597071 24.1341 
-2.25586 1.06709 24.1341 
-0.81438 1.42279 32.1788 
-2.30458 1.45446 35.1041 
-1.76165 0.422008 25.743 
-1.29955 1.33133 38.6145 
-2.53504 1.33133 38.6145 
-1.72584 0.780119 25.743 
-1.72583 0.672686 25.743 
-1.89044 1.49248 38.6145 
0.0481772 0.524292 42.905 
-0.190563 1.18083 42.905 
-0.937247 1.45446 35.1041 
-0.81438 1.42279 32.1788 
2.54507 0.731362 24.1341 
2.10862 0.798507 24.1341 
2.44435 0.798507 24.1341 
2.54507 0.83208 24.1341 
2.34363 0.899226 24.1341 
2.47792 0.899226 24.1341 
1.90718 0.932799 24.1341 
2.10862 0.966372 24.1341 
2.51149 0.999945 24.1341 
2.7465 0.328487 24.134 
2.91436 0.395633 24.134 
2.71293 0.630643 24.1341 
2.51149 0.731362 24.1341 
2.81365 0.764935 24.1341 
2.51149 0.83208 24.1341 
2.44435 0.899226 24.1341 
2.47792 0.999945 24.1341 
2.84722 1.03352 24.1341 
2.67936 1.06709 24.1341 
2.83209 0.210232 15.4458 
2.89655 0.253205 15.4458 
2.93953 0.339152 15.4458 
2.91804 0.382125 15.4458 
2.9501 0.509957 16.0894 
2.93953 0.532532 15.4458 
2.91804 0.575505 15.4458 
2.59574 0.682939 15.4458 
2.96101 0.446585 15.4458 
3.3048 0.403612 15.4458 
3.19737 0.446585 15.4458 
2.96101 0.253205 15.4458 
3.19737 0.382125 15.4458 
2.96102 0.596992 15.4458 
3.08993 0.231718 15.4458 
3.19737 0.575505 15.4458 
3.08994 0.596992 15.4458 
2.47106 0.24715 8.98013 
2.43357 0.309611 8.98011 
2.63345 0.147212 8.98012 
2.61023 0.143866 8.77602 
2.63464 0.143867 8.77602 
2.70789 0.143867 8.77602 
2.60847 0.159705 8.98012 
2.7074 0.176481 8.58101 
2.4149 0.241533 8.77603 
2.4779 0.271832 8.21585 
2.53697 0.326991 8.77602 
4.16854 0.175193 12.8715 
4.17269 0.169542 12.4563 
4.06873 0.221526 12.4563 
4.02551 0.214603 12.067 
4.59013 0.236803 13.3154 
4.5716 0.273849 13.3154 
4.59013 0.329418 13.3154 
3.93608 0.256933 11.7014 
3.10029 0.0962986 7.88051 
3.12222 0.0962985 7.88051 
3.12012 0.109496 8.04469 
3.1425 0.131878 8.04469 
3.16489 0.143069 8.04469 
3.13318 0.238812 7.88051 
3.09774 0.165451 8.04469 
3.20965 0.165451 8.0447 
3.0674 0.238812 7.88051 
3.56367 0.157542 8.21586 
3.60939 0.157542 8.21587 
3.40366 0.1804 8.21586 
3.60268 0.260039 8.58099 
3.65509 0.191829 8.21585 
3.64793 0.375824 8.77602 
3.6551 0.157542 8.21586 
3.63491 0.176642 8.0447 
3.66652 0.191829 8.21585 
3.67967 0.187832 8.04468 
3.62917 0.223292 7.7229 
3.50762 0.0559128 4.10793 
3.50762 0.164489 4.10793 
-13.405 0.709783 21.4525 
-13.53 0.877928 22.7144 
-14.1071 0.731361 24.1341 
-14.3085 0.764933 24.134 
-14.0063 0.697788 24.134 
-13.3752 0.709784 21.4525 
-14.2078 0.865654 24.1341 
-14.0063 0.764934 24.134 
-13.2772 0.877927 22.7144 
-13.1663 1.21711 21.4525 
-14.5435 1.16781 24.1341 
-9.87855 0.582807 18.3878 
-14.0063 0.697788 24.134 
-13.6371 0.697789 24.1341 
-13.5028 0.697788 24.134 
-13.3685 0.697789 24.1341 
-13.872 0.73136 24.134 
-13.3685 1.23496 24.1341 
-13.7714 0.764935 24.1341 
-9.87855 0.582807 18.3878 
-12.8273 1.49634 25.743 
-9.64731 0.611948 19.3072 
-12.7198 1.42472 25.743 
-12.7198 1.35309 25.743 
-12.7556 1.20985 25.743 
-12.7914 1.13823 25.743 
-9.23908 0.736284 18.3879 
-11.9248 0.932797 24.134 
-9.13653 1.06907 17.552 
-13.2063 1.60322 27.5818 
-12.7198 0.959173 25.743 
-13.5133 1.06606 27.5818 
-12.8273 1.13823 25.743 
-13.4749 1.2579 27.5818 
-13.7051 1.29627 27.5818 
-13.59 1.41137 27.5817 
-13.3982 1.52648 27.5818 
-13.5133 1.67996 27.5818 
-13.59 1.60322 27.5817 
-13.1066 1.18938 29.7035 
-13.1892 1.4373 29.7035 
-9.9776 1.40282 24.134 
-11.2158 1.53215 25.743 
-9.91046 1.46996 24.134 
-11.0725 1.10242 25.7429 
-9.91046 1.33567 24.134 
-13.3482 1.10944 32.1787 
-12.0552 1.41137 27.5817 
-13.1066 1.31334 29.7035 
-9.94403 1.40282 24.134 
-13.0349 0.930386 32.1788 
-9.2726 1.06709 24.1341 
-9.67545 1.46996 24.134 
-9.87688 1.46996 24.134 
-9.70903 1.33567 24.1341 
-12.9006 1.01991 32.1787 
-9.87688 1.33567 24.134 
-9.30618 0.69779 24.1341 
-9.42523 0.744309 25.743 
-9.24617 0.744309 25.743 
-8.29899 0.69779 24.1341 
-8.0304 0.69779 24.1341 
-8.16469 0.899226 24.1341 
-7.9968 0.999943 24.134 
-7.86253 0.999945 24.1341 
-8.19825 1.03352 24.134 
-8.80255 1.06709 24.134 
-8.70184 1.06709 24.1341 
-7.12392 1.43639 24.1341 
-6.9225 0.764936 24.1341 
-7.09035 1.33567 24.1341 
-7.2582 1.20138 24.134 
-7.15749 1.20138 24.134 
-7.35893 1.26853 24.1341 
-6.95604 0.96637 24.134 
-7.86253 0.999945 24.1341 
-7.29179 1.40282 24.1341 
-7.42608 1.40282 24.1341 
-7.90019 1.06542 29.7035 
-7.31235 1.53215 25.743 
-7.6936 1.10674 29.7035 
-7.65225 1.39598 29.7034 
-7.77623 0.98278 29.7035 
-7.81753 1.35466 29.7034 
-7.09751 0.959176 25.7431 
-7.32168 1.31334 29.7034 
-7.61092 1.31334 29.7034 
-7.65226 1.18938 29.7035 
-6.85752 1.46756 32.1789 
-6.99259 1.60097 35.1042 
-8.12157 1.11646 38.6145 
-7.74555 1.11646 38.6145 
-7.03656 0.97515 32.1788 
-6.67845 1.51232 32.1788 
-8.12157 1.33133 38.6145 
-7.79928 1.33133 38.6146 
-6.78453 1.2307 29.7035 
-7.08133 1.19897 32.1788 
-7.63812 1.5462 38.6145 
-6.3651 1.46755 32.1788 
-8.12868 1.47925 42.905 
-7.31582 1.43876 38.6145 
-7.63812 1.43876 38.6145 
-7.63811 1.11646 38.6145 
-8.069 1.35988 42.905 
-7.66757 1.46272 48.2682 
-7.5307 1.43876 38.6146 
-6.74841 1.55213 35.1041 
-4.22266 1.4373 29.7035 
-3.53735 1.52649 27.5818 
-6.52609 1.46272 48.2681 
-4.18134 1.56127 29.7035 
-5.08474 1.3002 42.905 
-5.62191 1.41957 42.905 
-5.14443 1.53894 42.905 
-4.90569 1.53894 42.905 
-4.40441 1.5033 35.1041 
-6.25751 1.46273 48.2682 
-2.22228 0.932799 24.1341 
-1.78584 1.06709 24.1341 
-2.02085 1.10066 24.1341 
-2.25586 1.06709 24.1341 
-1.88655 1.26853 24.1341 
-1.78584 1.13424 24.1341 
-1.98727 0.697789 24.1341 
-1.92013 1.36925 24.1341 
-2.02084 0.798507 24.1341 
-2.08799 0.798507 24.1341 
-2.30458 1.45446 35.1041 
-2.023 1.51231 32.1787 
-0.81438 1.42279 32.1788 
-2.53504 1.33133 38.6145 
-1.29955 1.33133 38.6145 
-1.72584 0.780119 25.743 
-1.89044 1.49248 38.6145 
-1.0808 1.46996 24.134 
-2.10049 1.47925 42.905 
-1.13258 1.40563 35.1041 
0.0942453 1.46996 24.1341 
-0.81438 1.42279 32.1788 
-0.00796705 1.39598 29.7035 
0.281276 1.4373 29.7034 
-0.122505 1.37301 27.5818 
-0.107192 1.46996 24.1341 
-0.293393 1.42472 25.743 
-0.0427158 1.42472 25.743 
0.337923 1.44975 27.5818 
-0.18596 1.42472 25.743 
1.35262 1.3835 22.7144 
1.3181 1.28147 25.743 
1.06693 1.37301 27.5818 
1.13905 1.3531 25.743 
0.83672 1.37301 27.5818 
1.10324 1.49634 25.743 
1.06743 1.38891 25.743 
0.683244 1.44974 27.5818 
1.20215 1.40282 24.1341 
1.50431 1.36925 24.1341 
1.92139 1.13071 22.7144 
1.35262 1.3835 22.7144 
1.57145 1.33567 24.1341 
2.54507 0.83208 24.1341 
2.07938 1.3835 22.7144 
2.47792 0.899226 24.1341 
1.90718 0.932799 24.1341 
2.10862 0.798507 24.1341 
1.7002 1.3203 22.7144 
1.98458 1.03592 22.7144 
2.67936 1.10066 24.1341 
2.81365 0.764935 24.1341 
2.51149 0.83208 24.1341 
2.44435 0.899226 24.1341 
2.55335 1.2887 22.7144 
2.84722 1.03352 24.1341 
2.64814 1.25711 22.7144 
2.84722 1.13424 24.1341 
2.64578 1.20138 24.1341 
2.51149 0.731362 24.1341 
2.9501 0.509957 16.0894 
2.93953 0.532532 15.4458 
2.91804 0.575505 15.4458 
2.59574 0.682939 15.4458 
2.70318 0.725912 15.4458 
2.70318 0.811859 15.4458 
2.78913 0.81186 15.4458 
2.89656 0.833346 15.4458 
2.85359 0.897807 15.4458 
2.93953 0.897804 15.4458 
2.96101 0.446585 15.4458 
3.19737 0.446585 15.4458 
2.96102 0.596992 15.4458 
3.26183 0.790373 15.4458 
3.11143 0.768886 15.4458 
3.36927 0.725913 15.4458 
2.37437 0.480553 9.65362 
2.40817 0.573644 9.41816 
2.43357 0.309611 8.98011 
2.41466 0.561127 9.65362 
2.22665 0.574557 9.65362 
2.42757 0.43209 9.19393 
2.36094 0.534269 9.65362 
2.4779 0.271832 8.21585 
2.53697 0.326991 8.77602 
2.48223 0.422842 8.04468 
2.69468 0.238812 7.88051 
3.0674 0.238812 7.88051 
3.13318 0.238812 7.88051 
3.60268 0.260039 8.58099 
3.66236 0.26004 8.581 
3.64793 0.375824 8.77602 
3.62917 0.223292 7.7229 
3.50762 0.164489 4.10793 
3.50762 0.181632 4.10793 
-12.8974 1.52058 20.3234 
-14.5435 1.16781 24.1341 
-13.4037 1.13071 22.7144 
-13.1663 1.21711 21.4525 
-13.5932 1.41509 22.7144 
-12.9873 1.51553 21.4525 
-13.0469 1.6349 21.4525 
-10.2878 1.24787 18.3879 
-13.3685 1.23496 24.1341 
-13.4692 1.50354 24.1341 
-9.9911 1.33765 17.552 
-10.0643 1.33765 17.552 
-10.032 1.19671 18.3879 
-9.95529 1.22229 18.3879 
-10.339 1.37576 18.3878 
-9.92971 1.27345 18.3878 
-10.3134 1.32461 18.3879 
-9.20977 1.16673 17.552 
-12.7556 1.20985 25.743 
-8.91677 1.19115 17.552 
-12.7198 1.35309 25.743 
-13.7435 1.71833 27.5818 
-12.7198 1.42472 25.743 
-9.18537 0.995816 17.5521 
-9.11211 1.09348 17.552 
-12.8273 1.49634 25.743 
-9.06329 1.16673 17.5521 
-13.4749 1.2579 27.5818 
-13.7051 1.29627 27.5818 
-13.59 1.41137 27.5817 
-13.3982 1.52648 27.5818 
-13.0145 1.83343 27.5818 
-13.2063 1.60322 27.5818 
-13.59 1.60322 27.5817 
-13.7435 1.56485 27.5818 
-13.5133 1.67996 27.5818 
-13.4371 1.6439 29.7034 
-9.9776 1.57068 24.134 
-13.1892 1.4373 29.7035 
-9.91046 1.46996 24.134 
-11.2158 1.53215 25.743 
-9.9776 1.40282 24.134 
-12.0552 1.41137 27.5817 
-9.91046 1.33567 24.134 
-13.1066 1.35466 29.7035 
-10.1119 1.60426 24.134 
-13.2305 1.6439 29.7034 
-9.94403 1.57068 24.134 
-9.2726 1.10066 24.1341 
-9.70903 1.57068 24.1341 
-9.40688 1.3021 24.1341 
-9.87688 1.33567 24.134 
-9.70903 1.33567 24.1341 
-9.94403 1.40282 24.134 
-9.37329 1.40282 24.134 
-9.87688 1.46996 24.134 
-9.67545 1.46996 24.134 
-5.7182 1.36206 17.552 
-6.62997 1.14555 18.3878 
-6.35302 1.33765 17.552 
-6.16955 1.27345 18.3879 
-6.37419 1.17113 18.3879 
-6.47651 1.19671 18.3879 
-6.19513 1.19671 18.3879 
-6.68112 1.27345 18.3878 
-5.99049 1.19671 18.3879 
-6.3486 1.24787 18.3878 
-7.29179 1.40282 24.1341 
-7.42608 1.40282 24.1341 
-7.24073 1.60377 25.7429 
-7.22464 1.50354 24.1341 
-7.12392 1.43639 24.1341 
-7.09035 1.33567 24.1341 
-7.2582 1.20138 24.134 
-7.15749 1.20138 24.134 
-7.35893 1.26853 24.1341 
-7.27655 1.53215 25.743 
-7.81753 1.35466 29.7034 
-7.27655 1.60377 25.743 
-7.32168 1.35466 29.7034 
-7.65225 1.39598 29.7034 
-7.31235 1.53215 25.743 
-7.90017 1.47862 29.7035 
-7.56962 1.35466 29.7035 
-5.75693 1.60468 22.7144 
-7.52772 1.60322 27.5818 
-7.56961 1.64391 29.7035 
-4.0766 1.57713 20.3234 
-6.85752 1.46756 32.1789 
-6.99259 1.60097 35.1042 
-4.46141 1.54149 22.7144 
-6.67845 1.51232 32.1788 
-6.7432 1.4373 29.7034 
-6.8575 1.69137 32.1788 
-7.08133 1.46755 32.1788 
-7.17086 1.51232 32.1788 
-6.14644 1.60322 27.5818 
-6.3651 1.46755 32.1788 
-4.02006 1.57713 20.3234 
-3.4078 1.54538 21.4525 
-3.45028 1.47829 22.7145 
-4.36661 1.50989 22.7144 
-4.42981 1.54149 22.7144 
-3.49733 1.54538 21.4525 
-3.79785 1.54149 22.7144 
-4.08224 1.54149 22.7144 
-4.40452 1.53711 24.134 
-3.53735 1.52649 27.5818 
-3.16906 1.54538 21.4525 
-4.22266 1.4373 29.7035 
-3.1027 1.54149 22.7145 
-3.45028 1.47829 22.7145 
-4.18134 1.56127 29.7035 
-2.8408 1.54538 21.4525 
-2.56553 1.50989 22.7144 
-2.33348 1.48569 21.4525 
-2.6319 1.51554 21.4525 
-1.92013 1.36925 24.1341 
-2.02085 1.10066 24.1341 
-1.88655 1.26853 24.1341 
-1.71239 1.44669 22.7144 
-1.78584 1.13424 24.1341 
-2.42372 1.23496 24.1341 
-1.45553 1.44456 19.3073 
-1.81941 1.20138 24.1341 
-2.25586 1.26853 24.1341 
-2.28943 1.16781 24.134 
-0.81438 1.46755 32.1787 
-0.797064 1.54886 20.3234 
-1.24066 1.47141 19.3073 
-0.938424 1.52058 20.3234 
-0.890836 1.54149 22.7144 
-2.023 1.51231 32.1787 
-1.0808 1.46996 24.134 
-1.55083 1.50354 24.1341 
-1.08042 1.44669 22.7144 
-0.890836 1.41509 22.7144 
-0.81438 1.46755 32.1787 
-0.0427158 1.42472 25.743 
0.281276 1.4373 29.7034 
-0.107192 1.50354 24.134 
0.337923 1.44975 27.5818 
-0.293393 1.42472 25.743 
0.0255056 1.44669 22.7144 
-0.00796705 1.39598 29.7035 
-0.122505 1.37301 27.5818 
-0.193187 1.49827 19.3072 
1.13905 1.3531 25.743 
1.35262 1.47829 22.7144 
0.83672 1.37301 27.5818 
1.06693 1.37301 27.5818 
1.3181 1.28147 25.743 
1.35262 1.3835 22.7144 
1.19463 1.41509 22.7144 
1.10324 1.49634 25.743 
1.06743 1.38891 25.743 
0.683244 1.44974 27.5818 
1.51061 1.44669 22.7144 
1.35262 1.47829 22.7144 
1.35262 1.3835 22.7144 
1.66004 1.44456 19.3073 
1.65773 1.42693 18.3879 
1.57778 1.4075 20.3234 
1.77568 1.46404 20.3234 
1.5526 1.47141 19.3073 
1.57145 1.33567 24.1341 
1.92139 1.13071 22.7144 
2.23388 1.18142 16.0894 
2.2115 1.24856 16.0894 
2.64578 1.20138 24.1341 
2.14435 1.24856 16.0894 
2.28457 1.49231 20.3235 
2.46579 1.47142 19.3073 
2.2563 1.43577 20.3235 
2.68008 1.45585 21.4525 
2.62039 1.45585 21.4525 
2.14322 1.49231 20.3235 
2.66118 1.13186 14.8517 
2.55788 1.13186 14.8517 
2.78913 0.81186 15.4458 
2.51656 1.1112 14.8517 
2.72317 1.09054 14.8517 
2.93953 0.897804 15.4458 
2.53129 1.04821 15.4458 
2.59574 0.98375 15.4458 
2.27316 0.647204 10.1617 
3.26183 0.790373 15.4458 
3.11143 0.768886 15.4458 
3.36927 0.725913 15.4458 
3.13291 0.725913 15.4458 
2.93953 0.897804 15.4458 
2.23785 0.652254 9.41816 
2.37437 0.480553 9.65362 
2.26405 0.626051 9.41816 
2.40817 0.573644 9.41816 
2.41466 0.561127 9.65362 
2.22665 0.574557 9.65362 
2.2613 0.713462 9.19392 
2.48223 0.422842 8.04468 
3.17037 0.545115 7.28575 
3.68131 0.534801 7.88051 
3.33253 0.524845 7.28576 
3.73751 0.545268 7.42586 
3.50762 0.187347 4.10793 
-13.067 1.71848 20.3234 
-12.8409 1.71848 20.3234 
-12.954 1.71848 20.3234 
-12.8974 1.52058 20.3234 
-12.0377 1.79371 19.3072 
-10.3329 1.65506 17.552 
-12.9873 1.51553 21.4525 
-13.0469 1.6349 21.4525 
-10.4794 1.63065 17.552 
-12.8977 1.75427 21.4525 
-13.0768 1.78412 21.4525 
-11.4133 1.7083 18.3879 
-10.2353 1.58181 17.552 
-10.4062 1.5574 17.552 
-13.5932 1.41509 22.7144 
-9.64929 1.63065 17.5521 
-9.42953 1.60623 17.552 
-10.2353 1.58181 17.552 
-10.032 1.19671 18.3879 
-9.67369 1.50856 17.552 
-9.50277 1.4109 17.552 
-9.92971 1.27345 18.3878 
-10.1132 1.4109 17.552 
-9.9911 1.33765 17.552 
-13.4692 1.50354 24.1341 
-9.11211 1.09348 17.552 
-13.7435 1.71833 27.5818 
-8.9656 1.36206 17.552 
-9.20977 1.16673 17.552 
-9.06329 1.16673 17.5521 
-8.91677 1.19115 17.552 
-9.13674 1.22229 18.3878 
-9.92971 1.27345 18.3878 
-9.35627 1.1179 17.552 
-9.16094 1.48415 17.552 
-8.15986 1.65506 17.552 
-13.6284 1.7567 27.5818 
-9.16233 1.22229 18.3878 
-13.0145 1.83343 27.5818 
-12.6308 1.98691 27.5818 
-13.5133 1.91017 27.5818 
-12.1468 1.78283 25.743 
-12.6692 1.91017 27.5818 
-13.5516 1.71833 27.5818 
-8.74586 1.65506 17.552 
-11.2158 1.60377 25.743 
-7.6227 1.65506 17.552 
-9.87688 1.50354 24.134 
-7.59828 1.43532 17.552 
-7.50061 1.31323 17.552 
-9.9776 1.57068 24.134 
-10.1119 1.60426 24.134 
-7.28086 1.65506 17.552 
-7.64712 1.36207 17.5521 
-7.89127 1.60623 17.552 
-9.84333 1.50354 24.1341 
-9.70903 1.57068 24.1341 
-9.94403 1.57068 24.134 
-6.54836 1.65506 17.552 
-7.10994 1.65506 17.552 
-6.89019 1.65506 17.552 
-6.64603 1.63065 17.552 
-6.84137 1.63065 17.552 
-6.98786 1.65506 17.552 
-6.88578 1.29903 18.3879 
-5.91353 1.4109 17.552 
-5.91353 1.53298 17.552 
-5.98678 1.53298 17.552 
-5.66936 1.5574 17.552 
-6.10887 1.5574 17.552 
-6.16955 1.27345 18.3879 
-6.68112 1.27345 18.3878 
-5.8647 1.60623 17.552 
-5.96236 1.48415 17.552 
-6.40186 1.58181 17.552 
-7.29179 1.50354 24.1341 
-7.22464 1.50354 24.1341 
-5.5717 1.63065 17.552 
-7.24073 1.60377 25.7429 
-5.66936 1.5574 17.552 
-5.42775 1.55482 18.3879 
-7.21042 1.54148 22.7144 
-5.61856 1.57884 19.3072 
-5.47891 1.63156 18.3879 
-5.52287 1.60623 17.552 
-7.27655 1.60377 25.743 
-5.85489 1.69459 21.4525 
-5.85172 1.63628 22.7144 
-5.75693 1.60468 22.7144 
-5.91492 1.66788 22.7144 
-4.379 1.60598 18.3879 
-5.91458 1.66475 21.4525 
-6.04958 1.63783 24.134 
-6.16641 1.6754 25.743 
-6.1503 1.63783 24.134 
-4.379 1.60598 18.3879 
-4.0766 1.57713 20.3234 
-4.46141 1.54149 22.7144 
-4.27668 1.65714 18.3879 
-4.24879 1.63256 19.3072 
-6.16641 1.6754 25.743 
-4.19507 1.63256 19.3072 
-3.9802 1.65942 19.3072 
-4.1232 1.63156 18.3878 
-6.45338 1.7567 27.5817 
-3.31326 1.63367 20.3234 
-3.45028 1.47829 22.7145 
-4.36661 1.50989 22.7144 
-4.42981 1.54149 22.7144 
-4.08224 1.54149 22.7144 
-3.79785 1.54149 22.7144 
-3.39808 1.63367 20.3234 
-3.49733 1.54538 21.4525 
-3.4078 1.54538 21.4525 
-4.02006 1.57713 20.3234 
-3.45028 1.47829 22.7145 
-2.63729 1.55199 19.3072 
-2.8408 1.54538 21.4525 
-3.1027 1.54149 22.7145 
-3.16906 1.54538 21.4525 
-2.6319 1.51554 21.4525 
-2.33348 1.48569 21.4525 
-2.56553 1.50989 22.7144 
-2.31499 1.55199 19.3072 
-3.29228 1.57308 22.7144 
-1.71239 1.44669 22.7144 
-1.19561 1.5364 16.7889 
-1.24996 1.50857 17.5521 
-1.2839 1.4525 18.3879 
-1.45553 1.44456 19.3073 
-1.23532 1.51714 16.0894 
-2.33348 1.48569 21.4525 
-1.20716 1.50366 18.3879 
-2.39316 1.42601 21.4525 
-1.80718 1.47829 22.7144 
-1.55083 1.50354 24.1341 
-1.24066 1.47141 19.3073 
-0.797064 1.54886 20.3234 
-0.890836 1.41509 22.7144 
-0.890836 1.54149 22.7144 
-0.938424 1.52058 20.3234 
-1.08042 1.44669 22.7144 
-0.444207 1.53298 17.552 
-1.23274 1.50366 18.3879 
-0.517457 1.50856 17.552 
-0.107192 1.50354 24.134 
-0.0266974 1.51714 16.0894 
0.0441254 1.50856 17.552 
0.197122 1.51714 16.0894 
0.0929587 1.45973 17.552 
-0.138607 1.49476 16.0894 
0.1203 1.41509 22.7144 
-0.00470774 1.43531 17.552 
0.0255056 1.44669 22.7144 
-0.0979232 1.48968 16.7889 
1.02079 1.50857 17.5521 
1.19463 1.41509 22.7144 
1.38422 1.41509 22.7144 
1.35262 1.47829 22.7144 
0.483625 1.48415 17.552 
0.404337 1.4525 18.3879 
0.532851 1.51714 16.0894 
1.09404 1.48415 17.5521 
0.602728 1.51304 16.7889 
0.788027 1.50366 18.3879 
1.62957 1.51715 16.0894 
1.51061 1.44669 22.7144 
1.35262 1.47829 22.7144 
1.53693 1.46633 16.7889 
1.72377 1.44298 16.7889 
1.52575 1.52513 19.3073 
1.66004 1.44456 19.3073 
1.65773 1.42693 18.3879 
1.69671 1.47238 16.0894 
1.57778 1.4075 20.3234 
2.00404 1.46633 16.789 
1.77771 1.50857 17.5521 
2.23388 1.18142 16.0894 
1.98768 1.31571 16.0894 
1.74713 1.5364 16.789 
1.84055 1.46633 16.789 
1.88726 1.44298 16.789 
2.2115 1.24856 16.0894 
1.92053 1.47238 16.0894 
2.2563 1.43577 20.3235 
2.55788 1.13186 14.8517 
2.59574 0.98375 15.4458 
2.36367 1.2292 14.3017 
2.28409 1.20931 14.3017 
2.51656 1.1112 14.8517 
2.53129 1.04821 15.4458 
2.72317 1.09054 14.8517 
2.29752 0.795891 9.90115 
2.27316 0.647204 10.1617 
2.20394 0.679214 10.4363 
2.26405 0.626051 9.41816 
2.23785 0.652254 9.41816 
2.2613 0.726252 9.19393 
2.31129 0.795891 9.90115 
2.29967 0.764621 9.19392 
2.27218 0.717565 8.21585 
2.28361 0.717565 8.21584 
2.48506 0.733164 8.39445 
2.37504 0.751853 8.21585 
2.46647 0.694707 8.21585 
2.28361 0.694707 8.21584 
2.4474 0.674511 7.7229 
2.4474 0.695998 7.7229 
2.49342 0.691425 8.04468 
2.56794 0.661286 7.57147 
2.66318 0.68989 7.42587 
2.62186 0.607248 7.42586 
2.64252 0.689889 7.42586 
2.56794 0.703417 7.57147 
2.52581 0.692884 7.57147 
2.53634 0.661286 7.57147 
2.64252 0.617578 7.42586 
2.59087 0.669229 7.42586 
2.68384 0.638239 7.42586 
2.66318 0.627909 7.42586 
2.68384 0.638239 7.42586 
2.66318 0.68989 7.42587 
2.69417 0.700219 7.42586 
3.17037 0.545115 7.28575 
3.60938 0.648992 8.21585 
3.1805 0.636332 7.28575 
3.20077 0.676872 7.28575 
3.1805 0.687008 7.28575 
3.68131 0.534801 7.88051 
3.33253 0.524845 7.28576 
3.6551 0.66042 8.21585 
3.54537 0.616061 7.28575 
3.24131 0.666737 7.28575 
3.73751 0.545268 7.42586 
3.80982 0.617578 7.42586 
3.7685 0.586588 7.42586 
3.58591 0.616061 7.28575 
3.79949 0.669229 7.42586 
3.68726 0.616061 7.28575 
3.66699 0.585656 7.28575 
3.5555 0.616061 7.28575 
3.66699 0.666737 7.28575 
3.83048 0.669229 7.42586 
3.51646 0.333761 4.15209 
-11.2119 1.75273 17.552 
-13.067 1.71848 20.3234 
-12.954 1.71848 20.3234 
-12.8409 1.71848 20.3234 
-11.041 1.72832 17.5521 
-11.797 1.78503 18.3878 
-11.2364 1.80156 17.552 
-11.4133 1.7083 18.3879 
-10.4062 1.77715 17.552 
-10.4062 1.5574 17.552 
-20.4217 3.65195 35.104 
-10.3818 1.7039 17.552 
-9.74354 1.67652 16.7889 
-10.3085 1.80156 17.552 
-10.2597 1.75273 17.552 
-10.9922 1.72831 17.552 
-10.6504 1.8504 17.552 
-9.72021 1.67653 16.7889 
-9.89343 1.82598 17.552 
-6.25945 1.24471 11.3572 
-6.49643 1.24471 11.3572 
-20.4217 3.65195 35.104 
-9.64929 1.63065 17.5521 
-10.2353 1.58181 17.552 
-9.06626 1.69988 16.7889 
-8.80937 1.67653 16.7889 
-5.86448 1.24471 11.3572 
-8.45903 1.65317 16.7889 
-9.11211 1.7039 17.552 
-5.97708 1.29871 11.7014 
-9.06626 1.69988 16.7889 
-8.3189 1.65317 16.7889 
-8.92611 1.62981 16.7889 
-8.52909 1.67653 16.7889 
-5.53756 1.29871 11.7013 
-8.52611 1.75273 17.552 
-8.42844 1.72831 17.552 
-8.33077 1.7039 17.552 
-8.62377 1.7039 17.552 
-5.50502 1.29871 11.7014 
-8.11103 1.7039 17.552 
-5.92884 1.32251 12.067 
-8.15986 1.65506 17.552 
-8.42844 1.77715 17.552 
-7.42736 1.67948 17.552 
-7.6227 1.65506 17.552 
-7.25645 1.7039 17.552 
-7.59828 1.43532 17.552 
-7.28086 1.65506 17.552 
-7.76918 1.7039 17.552 
-7.84245 1.67948 17.552 
-7.89127 1.72831 17.552 
-7.50062 1.67948 17.552 
-7.89127 1.60623 17.552 
-6.64603 1.63065 17.552 
-6.81694 1.67948 17.552 
-6.54836 1.65506 17.552 
-6.89019 1.65506 17.552 
-6.84137 1.63065 17.552 
-7.23203 1.7039 17.552 
-7.10994 1.65506 17.552 
-6.98786 1.65506 17.552 
-6.7437 1.7039 17.5521 
-6.67045 1.5574 17.5521 
-5.91353 1.4109 17.552 
-5.8647 1.60623 17.552 
-5.66936 1.5574 17.552 
-5.96236 1.48415 17.552 
-5.98678 1.53298 17.552 
-5.91353 1.53298 17.552 
-6.10887 1.5574 17.552 
-6.40186 1.58181 17.552 
-6.3042 1.58181 17.552 
-5.3312 1.67381 16.0894 
-5.47403 1.5574 17.552 
-5.37637 1.63065 17.552 
-5.5717 1.63065 17.552 
-5.61856 1.57884 19.3072 
-5.52287 1.60623 17.552 
-5.47891 1.63156 18.3879 
-5.66936 1.5574 17.552 
-5.42775 1.55482 18.3879 
-5.47891 1.4525 18.3879 
-5.25428 1.60623 17.552 
-4.379 1.60598 18.3879 
-5.85489 1.69459 21.4525 
-3.78579 1.67132 15.4458 
-6.03395 1.69459 21.4525 
-5.60328 1.69021 20.3234 
-4.53538 1.72323 16.7889 
-3.82876 1.7143 15.4458 
-5.77291 1.63367 20.3234 
-4.37189 1.72323 16.7889 
-4.04492 1.69988 16.7889 
-4.13314 1.6054 20.3234 
-4.24879 1.63256 19.3072 
-4.19507 1.63256 19.3072 
-3.9802 1.65942 19.3072 
-4.379 1.60598 18.3879 
-3.41434 1.65317 16.7889 
-4.27668 1.65714 18.3879 
-3.50776 1.65317 16.7889 
-3.88144 1.67653 16.7889 
-4.1232 1.63156 18.3878 
-3.39808 1.63367 20.3234 
-3.31326 1.63367 20.3234 
-3.11072 1.62981 16.7889 
-2.17239 1.56742 14.3017 
-2.63729 1.55199 19.3072 
-2.05302 1.58731 14.3017 
-1.95355 1.56742 14.3017 
-1.80142 1.58638 14.8517 
-1.92538 1.56572 14.8517 
-1.99334 1.58731 14.3017 
-2.09067 1.54506 14.8517 
-1.9667 1.58638 14.8517 
-2.31499 1.55199 19.3072 
-1.71481 1.56742 14.3017 
-1.07803 1.53062 13.7909 
-1.11796 1.52763 14.3017 
-1.01848 1.50773 14.3017 
-1.09996 1.5424 15.4458 
-1.19561 1.5364 16.7889 
-1.24996 1.50857 17.5521 
-1.52969 1.5424 15.4458 
-1.2839 1.4525 18.3879 
-1.23532 1.51714 16.0894 
-1.20716 1.50366 18.3879 
-1.13323 1.52513 19.3073 
-1.23274 1.50366 18.3879 
-0.586245 1.62905 16.0894 
-1.05627 1.58429 16.0894 
-0.496718 1.56191 16.0894 
-0.517457 1.50856 17.552 
-0.444207 1.53298 17.552 
-0.832446 1.51714 16.0894 
-0.787683 1.51714 16.0894 
-1.2839 1.52924 18.3879 
-0.195544 1.53062 13.7909 
-0.00383602 1.52763 14.3017 
0.0579971 1.5244 14.8517 
-0.0900894 1.52092 15.4458 
-0.219009 1.52092 15.4458 
0.197122 1.51714 16.0894 
-0.0266974 1.51714 16.0894 
-0.138607 1.49476 16.0894 
0.0441254 1.50856 17.552 
0.0929587 1.45973 17.552 
0.706128 1.53062 13.7909 
0.575996 1.47794 15.4458 
0.483625 1.48415 17.552 
0.404337 1.4525 18.3879 
0.318157 1.49943 15.4458 
0.59102 1.53062 13.7909 
1.02079 1.50857 17.5521 
0.57312 1.54752 14.3017 
0.781106 1.5244 14.8517 
0.898296 1.5424 15.4458 
1.72377 1.44298 16.7889 
1.52575 1.52513 19.3073 
1.62957 1.51715 16.0894 
1.65195 1.47238 16.0894 
1.11167 1.5244 14.8518 
1.49022 1.51304 16.7889 
1.53693 1.46633 16.7889 
1.69671 1.47238 16.0894 
1.60718 1.47238 16.0894 
1.60657 1.47809 18.3879 
1.95312 1.53062 13.7909 
1.87638 1.53062 13.7909 
1.75776 1.49943 15.4458 
1.93808 1.5244 14.8517 
1.98768 1.31571 16.0894 
1.92053 1.47238 16.0894 
2.00404 1.46633 16.789 
1.77771 1.50857 17.5521 
1.84055 1.46633 16.789 
1.92598 1.52763 14.3017 
2.49703 1.47784 13.3153 
2.18333 1.39633 13.7909 
1.99149 1.53062 13.7909 
2.36367 1.2292 14.3017 
2.12578 1.49225 13.7909 
2.38589 1.42227 13.3153 
2.20066 1.47784 13.3153 
2.29327 1.45932 13.3153 
2.23771 1.42227 13.3153 
2.1764 1.2245 11.0327 
2.49703 1.47784 13.3153 
2.29752 0.795891 9.90115 
2.1457 1.13241 11.0327 
2.16071 0.892058 10.7262 
2.21845 0.824394 10.4363 
2.2613 0.726252 9.19393 
2.31129 0.795891 9.90115 
2.29967 0.764621 9.19392 
2.27218 0.717565 8.21585 
2.3179 0.877572 8.21585 
2.46647 0.694707 8.21585 
2.3179 0.831856 8.21585 
2.28361 0.717565 8.21584 
2.48506 0.733164 8.39445 
2.29504 0.831856 8.21585 
2.37504 0.751853 8.21585 
2.28361 0.694707 8.21584 
2.56794 0.703417 7.57147 
2.64252 0.617578 7.42586 
2.61153 0.75187 7.42586 
2.63219 0.71055 7.42586 
2.66318 0.68989 7.42587 
2.64252 0.689889 7.42586 
2.52581 0.692884 7.57147 
2.56794 0.661286 7.57147 
2.59087 0.669229 7.42586 
2.62186 0.607248 7.42586 
2.66318 0.627909 7.42586 
2.67374 0.80863 7.28575 
2.66318 0.68989 7.42587 
2.68384 0.73121 7.42586 
2.6636 0.747819 7.28575 
2.66318 0.75187 7.42586 
2.7045 0.720879 7.42586 
2.68384 0.638239 7.42586 
2.68384 0.75187 7.42586 
2.69417 0.700219 7.42586 
3.60938 0.648992 8.21585 
3.1805 0.636332 7.28575 
3.20077 0.676872 7.28575 
3.1805 0.687008 7.28575 
3.1216 0.714076 7.15083 
3.66653 0.889001 8.21585 
3.6551 0.66042 8.21585 
3.54537 0.616061 7.28575 
3.24131 0.666737 7.28575 
3.67795 0.889001 8.21584 
3.79949 0.720879 7.42586 
3.7685 0.586588 7.42586 
3.7685 0.73121 7.42587 
3.80982 0.617578 7.42586 
3.83048 0.73121 7.42586 
3.58591 0.616061 7.28575 
3.78916 0.7622 7.42586 
3.79949 0.669229 7.42586 
3.65686 0.78836 7.28575 
3.80982 0.77253 7.42586 
3.51646 0.333761 4.15209 
3.53378 0.403073 4.1521 
3.54534 0.403073 4.1521 
-11.797 1.78503 18.3878 
-11.2119 1.75273 17.552 
-11.2364 1.80156 17.552 
-11.041 1.72832 17.5521 
-11.4644 1.75945 18.3878 
-10.4909 1.74659 16.7889 
-20.4217 3.65195 35.104 
-10.3085 1.80156 17.552 
-10.3818 1.7039 17.552 
-10.4062 1.77715 17.552 
-6.59121 1.30791 11.3572 
-9.74354 1.67652 16.7889 
-10.2597 1.75273 17.552 
-10.9922 1.72831 17.552 
-10.5283 1.7039 17.552 
-10.6504 1.8504 17.552 
-9.89343 1.82598 17.552 
-20.4217 3.65195 35.104 
-6.35424 1.30791 11.3572 
-6.57543 1.30791 11.3572 
-9.72021 1.67653 16.7889 
-6.49643 1.24471 11.3572 
-6.48063 1.27631 11.3572 
-6.25945 1.24471 11.3572 
-5.88028 1.27631 11.3572 
-5.86448 1.24471 11.3572 
-9.11211 1.7039 17.552 
-5.85039 1.31658 11.0327 
-8.45903 1.65317 16.7889 
-5.81429 1.33126 11.7013 
-8.80937 1.67653 16.7889 
-5.86313 1.36382 11.7014 
-6.03826 1.27631 11.3572 
-5.64347 1.35608 12.067 
-5.50502 1.36382 11.7014 
-8.62377 1.7039 17.552 
-5.60991 1.37287 12.067 
-8.33077 1.7039 17.552 
-5.53756 1.31498 11.7013 
-8.52611 1.75273 17.552 
-8.42844 1.72831 17.552 
-5.92884 1.32251 12.067 
-8.11103 1.7039 17.552 
-7.84245 1.67948 17.552 
-7.89127 1.72831 17.552 
-7.25645 1.7039 17.552 
-7.42736 1.67948 17.552 
-7.76918 1.7039 17.552 
-5.46164 1.59043 12.4563 
-7.50062 1.67948 17.552 
-5.45882 1.4568 12.067 
-5.4924 1.37287 12.067 
-5.51362 1.53845 12.4563 
-6.7437 1.7039 17.5521 
-5.2027 1.6841 13.7909 
-6.81694 1.67948 17.552 
-5.12596 1.74165 13.7909 
-6.47512 1.7039 17.5521 
-7.23203 1.7039 17.552 
-7.10994 1.67948 17.552 
-7.01227 1.67948 17.552 
-6.64602 1.67948 17.552 
-5.37536 1.72247 13.7909 
-5.33432 1.71034 14.8517 
-5.3312 1.67381 16.0894 
-6.47512 1.7039 17.5521 
-5.17655 1.72658 14.3017 
-6.32861 1.67948 17.552 
-6.13328 1.67948 17.552 
-5.28985 1.73578 15.4458 
-5.23102 1.64836 14.8517 
-5.26406 1.6962 16.0894 
-5.23102 1.731 14.8517 
-5.28274 1.60646 16.7889 
-5.2787 1.67948 17.552 
-5.37616 1.65317 16.7889 
-5.3061 1.67652 16.7889 
-5.23603 1.69988 16.7889 
-5.07255 1.74659 16.7889 
-3.91733 1.70328 13.7909 
-4.32021 1.74165 13.7909 
-3.91191 1.68159 13.3153 
-3.171 1.68159 13.3153 
-4.53538 1.72323 16.7889 
-4.37189 1.72323 16.7889 
-3.78579 1.67132 15.4458 
-3.82876 1.7143 15.4458 
-3.6526 1.68159 13.3153 
-3.90877 1.68968 14.8517 
-3.86744 1.68968 14.8517 
-3.64875 1.66491 13.7909 
-3.50536 1.70668 14.3017 
-2.97729 1.62654 13.7909 
-3.41434 1.65317 16.7889 
-3.171 1.68159 13.3153 
-2.98577 1.66307 13.3153 
-3.16914 1.64573 13.7909 
-2.843 1.62654 13.7909 
-3.50776 1.65317 16.7889 
-3.88144 1.67653 16.7889 
-3.64789 1.67652 16.7889 
-4.04492 1.69988 16.7889 
-3.11072 1.62981 16.7889 
-2.17239 1.56742 14.3017 
-1.95516 1.58973 12.8715 
-2.33117 1.62554 12.8715 
-2.05302 1.58731 14.3017 
-1.5595 1.6075 13.3153 
-1.94133 1.62654 13.7909 
-1.68415 1.59043 12.4563 
-1.65211 1.57046 13.3153 
-1.9797 1.58817 13.7909 
-1.70448 1.60764 12.8715 
-1.95355 1.56742 14.3017 
-1.90296 1.56899 13.7909 
-1.92538 1.56572 14.8517 
-1.01848 1.50773 14.3017 
-1.52969 1.5424 15.4458 
-1.09996 1.5424 15.4458 
-0.93454 1.53601 12.8715 
-1.02233 1.55193 13.3153 
-0.982111 1.54981 13.7909 
-1.07803 1.53062 13.7909 
-1.11796 1.52763 14.3017 
-1.18591 1.49943 15.4458 
-1.1403 1.50374 14.8518 
-0.315244 1.59043 12.4563 
-0.3499 1.5731 12.4563 
-0.43654 1.55578 12.4563 
-1.05627 1.58429 16.0894 
-0.855629 1.55194 13.3154 
-0.905372 1.54981 13.7909 
-0.579234 1.58818 13.7909 
-0.496718 1.56191 16.0894 
-0.297916 1.53845 12.4563 
-0.586245 1.62905 16.0894 
-0.195544 1.53062 13.7909 
0.147841 1.52394 12.067 
-0.00383602 1.52763 14.3017 
-0.214728 1.56899 13.7909 
0.0579971 1.5244 14.8517 
-0.0900894 1.52092 15.4458 
-0.219009 1.52092 15.4458 
-0.0929799 1.55392 12.8715 
0.219504 1.53952 16.0894 
0.111408 1.54981 13.7909 
0.620465 1.52112 12.4563 
0.497903 1.53601 12.8715 
0.607687 1.53341 13.3154 
0.429857 1.53845 12.4563 
0.655121 1.55578 12.4563 
0.706128 1.53062 13.7909 
0.533825 1.53845 12.4563 
0.499169 1.57311 12.4563 
0.575996 1.47794 15.4458 
0.292796 1.55193 13.3153 
1.62957 1.53953 16.0894 
1.60736 1.52092 15.4458 
0.884407 1.48308 14.8517 
0.946388 1.50374 14.8517 
1.17365 1.50374 14.8518 
1.38025 1.50374 14.8518 
1.11167 1.5244 14.8518 
1.31827 1.5244 14.8518 
1.42861 1.50773 14.3017 
1.4485 1.54752 14.3017 
1.87638 1.53062 13.7909 
1.82222 1.47794 15.4458 
1.94134 1.6075 13.3153 
1.95312 1.53062 13.7909 
1.75776 1.49943 15.4458 
1.92598 1.52763 14.3017 
1.69671 1.58429 16.0894 
1.93808 1.5244 14.8517 
1.88668 1.52092 15.4458 
1.90429 1.57046 13.3153 
2.02403 1.59043 12.4563 
1.8854 1.59043 12.4563 
2.09334 1.5731 12.4563 
2.05868 1.5731 12.4563 
2.24929 1.53845 12.4563 
1.87663 1.55392 12.8715 
1.91244 1.53601 12.8715 
2.49703 1.47784 13.3153 
1.99149 1.53062 13.7909 
2.12578 1.49225 13.7909 
2.27201 1.3869 11.3572 
2.24041 1.27631 11.3572 
2.49703 1.47784 13.3153 
2.1457 1.13241 11.0327 
2.20881 1.3869 11.3572 
2.41379 1.4823 12.8715 
2.1764 1.17845 11.0327 
2.4474 0.749715 7.72289 
2.29504 0.831856 8.21585 
2.3179 0.831856 8.21585 
2.3179 0.877572 8.21585 
2.4474 0.889378 7.72289 
2.61153 0.75187 7.42586 
2.63219 0.71055 7.42586 
2.43666 0.889378 7.7229 
2.68384 0.73121 7.42586 
2.52581 0.724482 7.57147 
2.66318 0.75187 7.42586 
2.47964 0.771201 7.7229 
2.6012 0.77253 7.42586 
2.68384 0.75187 7.42586 
2.6012 0.834511 7.42586 
2.7045 0.720879 7.42586 
2.68384 0.73121 7.42586 
2.66318 0.75187 7.42586 
2.68384 0.75187 7.42586 
2.6636 0.747819 7.28575 
2.91699 0.80863 7.28575 
2.67374 0.818765 7.28575 
2.79536 0.920117 7.28575 
2.82577 0.920117 7.28575 
3.1805 0.697143 7.28575 
3.21091 0.697143 7.28575 
3.1216 0.714076 7.15083 
3.66653 0.889001 8.21585 
3.64367 1.02615 8.21585 
3.67795 1.03758 8.21584 
3.19063 0.930252 7.28575 
3.67795 0.889001 8.21584 
3.6551 1.02615 8.21585 
3.44402 0.920117 7.28575 
3.79949 0.720879 7.42586 
3.7685 0.73121 7.42587 
3.83048 0.73121 7.42586 
3.78916 0.7622 7.42586 
3.80982 0.77253 7.42586 
3.65686 0.78836 7.28575 
3.64672 0.839036 7.28576 
3.91312 0.896492 7.42586 
3.75821 0.889711 7.28575 
3.53378 0.403073 4.1521 
3.54534 0.403073 4.1521 
-6.87868 1.45471 11.0327 
-6.92473 1.43936 11.0327 
-6.69451 1.42402 11.0327 
-6.29965 1.53367 10.7262 
-6.59809 1.53367 10.7263 
-6.61301 1.47399 10.7263 
-6.77125 1.43936 11.0327 
-6.59122 1.29211 11.3572 
-6.86333 1.45471 11.0327 
-6.58707 1.45471 11.0327 
-6.90938 1.43936 11.0327 
-6.90938 1.39332 11.0327 
-6.48063 1.26051 11.3572 
-5.98631 1.53367 10.7262 
-5.97317 1.42402 11.0327 
-6.41744 1.30791 11.3572 
-6.57543 1.29211 11.3572 
-6.35424 1.29211 11.3572 
-6.01616 1.36954 10.7263 
-6.1206 1.42922 10.7262 
-5.98852 1.47006 11.0327 
-6.11725 1.33951 11.3572 
-5.71772 1.51875 10.7262 
-5.88028 1.26051 11.3572 
-6.03826 1.26051 11.3572 
-5.86313 1.34754 11.7014 
-5.81429 1.31499 11.7013 
-5.58343 1.51875 10.7262 
-5.52374 1.51875 10.7262 
-5.85039 1.30124 11.0327 
-5.35961 1.42922 10.7262 
-5.94347 1.27631 11.3572 
-5.53756 1.29871 11.7013 
-5.64348 1.33929 12.067 
-5.23649 1.56214 11.0327 
-5.73291 1.31499 11.7014 
-5.63524 1.31499 11.7014 
-5.60991 1.35608 12.067 
-5.60268 1.36382 11.7013 
-5.87849 1.40644 12.067 
-5.50502 1.34754 11.7014 
-5.54276 1.38965 12.067 
-5.21202 1.59171 11.7014 
-5.19024 1.67502 12.067 
-5.27713 1.6731 11.7014 
-5.29097 1.72538 12.067 
-5.25739 1.67502 12.067 
-5.24457 1.62426 11.7014 
-5.42699 1.62509 12.4563 
-5.27104 1.71173 12.4563 
-5.32454 1.55752 12.067 
-5.16706 1.71173 12.4563 
-5.30113 1.70012 13.3153 
-5.21396 1.76879 12.8715 
-5.2027 1.66491 13.7909 
-5.27603 1.72658 14.3017 
-5.37536 1.70328 13.7909 
-5.12596 1.72247 13.7909 
-5.23186 1.73297 12.8715 
-5.30348 1.73297 12.8715 
-5.19 1.77421 13.3153 
-5.12443 1.76879 12.8715 
-5.28986 1.7143 15.4458 
-5.17654 1.70668 14.3017 
-5.23102 1.66902 14.8517 
-5.33433 1.68968 14.8517 
-5.23102 1.71034 14.8517 
-5.10706 1.71034 14.8517 
-5.08759 1.66491 13.7909 
-4.99749 1.68679 14.3017 
-5.08759 1.70328 13.7909 
-4.44908 1.73716 13.3153 
-3.91733 1.6841 13.7909 
-4.32021 1.72247 13.7909 
-3.91191 1.66307 13.3153 
-3.76339 1.64145 12.067 
-3.64589 1.67502 12.067 
-3.29124 1.62426 11.7014 
-3.60522 1.60809 11.3572 
-3.30752 1.65682 11.7014 
-3.27497 1.65682 11.7014 
-2.96569 1.6731 11.7014 
-3.90877 1.66902 14.8517 
-3.86744 1.66902 14.8517 
-3.20944 1.69181 12.067 
-3.36969 1.69716 12.8715 
-3.27497 1.65682 11.7014 
-2.94941 1.64054 11.7014 
-3.171 1.66307 13.3153 
-3.3238 1.65682 11.7014 
-3.41088 1.67502 12.067 
-3.171 1.66307 13.3153 
-2.843 1.60736 13.7909 
-2.98577 1.64455 13.3153 
-2.97729 1.60736 13.7909 
-2.2307 1.62389 11.3572 
-2.68897 1.65682 11.7014 
-2.5913 1.64054 11.7014 
-3.16914 1.62654 13.7909 
-2.97729 1.64573 13.7909 
-3.04739 1.67926 12.8715 
-1.95516 1.57182 12.8715 
-2.33117 1.60764 12.8715 
-1.89208 1.60776 12.4563 
-2.02532 1.59229 11.3572 
-2.15162 1.57749 11.0327 
-1.67585 1.57749 11.0327 
-1.68415 1.5731 12.4563 
-1.9797 1.53062 13.7909 
-1.83296 1.55752 12.067 
-1.9797 1.56899 13.7909 
-1.7826 1.59109 12.067 
-1.94133 1.60736 13.7909 
-1.65211 1.55193 13.3153 
-1.5595 1.58898 13.3153 
-1.59795 1.5743 12.067 
-1.70448 1.58973 12.8715 
-0.98211 1.53062 13.7909 
-1.02234 1.53341 13.3154 
-0.934543 1.51811 12.8715 
-1.41799 1.57182 12.8715 
-0.991033 1.53845 12.4563 
-0.833304 1.5266 11.7014 
-0.785686 1.5468 11.0327 
-0.905372 1.53062 13.7909 
-0.745599 1.57649 11.3572 
-0.855629 1.53341 13.3154 
-0.43654 1.53845 12.4563 
-0.3499 1.55578 12.4563 
-0.315244 1.5731 12.4563 
-0.579234 1.56899 13.7909 
-0.297916 1.52112 12.4563 
-0.556013 1.60809 11.3572 
-0.845014 1.53602 12.8715 
0.147841 1.50716 12.067 
0.0974819 1.5743 12.067 
0.202341 1.56069 11.3572 
-0.214729 1.54981 13.7909 
0.0285517 1.59229 11.3572 
-0.0929799 1.53601 12.8715 
0.0303362 1.54073 12.067 
0.111408 1.53062 13.7909 
-0.020669 1.55578 12.4563 
-0.315244 1.5731 12.4563 
0.655121 1.53845 12.4563 
0.713084 1.57543 11.7014 
0.533825 1.52112 12.4563 
0.607686 1.51489 13.3154 
0.497903 1.51811 12.8715 
0.620465 1.50379 12.4563 
0.429857 1.52112 12.4563 
0.21814 1.56069 11.3572 
0.615417 1.54288 11.7014 
0.53412 1.56069 11.3572 
0.794471 1.54287 11.7014 
0.69211 1.5291 11.3572 
0.802702 1.52909 11.3572 
0.841158 1.53145 11.0327 
0.718378 1.56214 11.0327 
0.832714 1.53367 10.7262 
1.94134 1.58898 13.3153 
1.99149 1.53062 13.7909 
1.56105 1.59229 11.3572 
1.33228 1.57749 11.0327 
1.90429 1.55193 13.3153 
1.94134 1.53341 13.3153 
1.91475 1.53062 13.7909 
1.5758 1.59171 11.7014 
1.88577 1.58898 13.3153 
1.40306 1.57649 11.3572 
1.99149 1.53062 13.7909 
1.8854 1.5731 12.4563 
2.09334 1.55578 12.4563 
2.05868 1.55578 12.4563 
2.24929 1.52112 12.4563 
1.87663 1.53601 12.8715 
1.97204 1.59043 12.4563 
2.02403 1.5731 12.4563 
2.10659 1.53062 13.7909 
1.91244 1.51811 12.8715 
2.41379 1.42858 12.8715 
2.24041 1.26051 11.3572 
2.41379 1.46439 12.8715 
2.20881 1.3711 11.3572 
2.27201 1.3711 11.3572 
2.23785 1.29423 9.41816 
2.27715 1.32044 9.41817 
2.4474 0.878634 7.7229 
2.30003 1.05004 7.88051 
2.29199 1.15025 8.04468 
2.31437 1.15025 8.04469 
2.32195 1.12678 7.88051 
2.6012 0.824181 7.42586 
2.43666 0.878635 7.7229 
2.67374 0.80863 7.28575 
2.79536 0.909982 7.28575 
2.82577 0.909982 7.28575 
3.15145 1.00255 7.15083 
3.00223 1.02245 7.15083 
3.07186 1.0125 7.15083 
3.67795 1.08329 8.21585 
3.19124 0.992606 7.15083 
2.98234 1.0125 7.15083 
2.9525 1.0125 7.15083 
3.09176 1.00255 7.15083 
3.26158 1.04174 7.28575 
2.91271 1.0125 7.15083 
3.46429 1.02147 7.28575 
3.42375 1.01133 7.28576 
3.31226 1.01133 7.28575 
3.20118 0.992606 7.15083 
3.34266 1.01133 7.28575 
3.37307 1.01133 7.28576 
